40.0618743896484,29.7702903747559,15.9862947463989
38.1642150878906,30.2287406921387,16.0723781585693
38.3016395568848,30.2095165252686,16.0524578094482
40.2322654724121,29.6685676574707,16.1974105834961
35.2983551025391,29.923791885376,16.1174983978271
38.6270065307617,30.2111625671387,16.2899570465088
33.1361656188965,30.062894821167,16.3996391296387
33.3008460998535,30.0129909515381,16.3855838775635
36.9007949829102,30.0578765869141,16.3945045471191
38.194652557373,30.0524749755859,16.3892345428467
37.2387008666992,30.1311912536621,16.3108882904053
37.4161376953125,30.1256008148193,16.3028717041016
38.8760948181152,30.2828998565674,16.3129463195801
36.8750114440918,30.0251865386963,16.4241523742676
34.6763000488281,29.3833236694336,16.5493240356445
33.0997200012207,29.8393859863281,16.5103359222412
33.2796249389648,29.847297668457,16.5093002319336
36.6422348022461,30.1634254455566,16.5521965026855
36.7895469665527,30.1367874145508,16.5337429046631
36.8871879577637,29.3959045410156,16.6320858001709
35.5724182128906,30.1712303161621,16.7070236206055
35.7961463928223,30.1678771972656,16.7130126953125
39.0767288208008,30.2176094055176,16.7360382080078
30.9896583557129,29.0208282470703,16.8835391998291
35.4628028869629,29.5528335571289,16.8842735290527
30.2634429931641,29.6700477600098,16.8043518066406
30.4407405853271,29.7367095947266,16.8130187988281
33.0137786865234,29.920597076416,16.801700592041
33.8430480957031,29.986156463623,16.8819828033447
28.0556812286377,29.0730762481689,16.9766731262207
36.8026695251465,29.5361976623535,16.9257469177246
29.643518447876,29.6883430480957,16.9205265045166
33.2533988952637,29.9286003112793,16.9917221069336
34.4420318603516,29.9530296325684,16.9896049499512
33.7435455322266,30.059455871582,16.9165172576904
37.0118637084961,30.1491584777832,16.9624214172363
36.8585052490234,30.2055416107178,16.9736328125
29.0786628723144,29.0415115356445,17.0743923187256
26.6722660064697,29.5913581848144,17.050594329834
33.4415168762207,29.9467964172363,17.044849395752
29.1540279388428,29.1647338867187,17.1969928741455
29.5453319549561,29.119873046875,17.1499462127686
29.6737308502197,29.116720199585,17.144775390625
30.0474529266357,29.7685451507568,17.1460647583008
29.8421878814697,29.853084564209,17.162914276123
33.7323455810547,29.9753952026367,17.1306228637695
27.7136898040771,28.8110466003418,17.242115020752
27.8216857910156,28.9370555877686,17.238956451416
29.4068145751953,29.09983253479,17.2068519592285
29.1563091278076,29.1193199157715,17.2886009216309
26.521858215332,29.2795810699463,17.2358264923096
30.8735580444336,29.7853393554687,17.2741661071777
30.987979888916,29.8110313415527,17.2590560913086
31.0144538879395,29.8135643005371,17.2666625976563
34.2642669677734,30.0291862487793,17.2991256713867
34.7156028747559,30.1402263641357,17.2730751037598
21.6303768157959,28.7451038360596,17.3152484893799
21.9112186431885,28.8076553344727,17.3366661071777
29.3599529266357,29.1922245025635,17.3024063110352
31.2929077148438,29.1187324523926,17.3582878112793
29.5157337188721,29.2071475982666,17.3472003936768
26.8292789459228,29.0675277709961,17.4373149871826
29.460376739502,29.1674842834473,17.4876556396484
29.5573921203613,29.1296634674072,17.4577178955078
34.7764663696289,30.0828437805176,17.4758777618408
29.3380451202393,29.1415100097656,17.5022869110107
26.3301830291748,29.208309173584,17.5560245513916
26.5322284698486,29.2360572814941,17.5441589355469
26.7177658081055,29.2197151184082,17.524169921875
22.0096073150635,29.5652351379395,17.5813884735107
22.2094078063965,29.5145511627197,17.5710735321045
24.0661926269531,28.9989852905273,17.7939682006836
24.1875877380371,29.0016803741455,17.7740020751953
30.0337600708008,29.0572547912598,17.7156066894531
30.1427440643311,29.1858062744141,17.7062358856201
25.9854717254639,29.2574291229248,17.7663440704346
26.1724605560303,29.257137298584,17.7651920318604
19.2216873168945,28.4661121368408,17.9590110778809
34.826229095459,30.1622447967529,18.0932903289795
17.2166957855225,28.2806797027588,18.1378688812256
20.4819641113281,28.7315635681152,18.1376552581787
20.6335353851318,28.7267379760742,18.1197814941406
17.4412498474121,28.9639148712158,18.1807651519775
17.7295970916748,28.9970970153809,18.1657562255859
24.0564098358154,28.993293762207,18.1431789398193
24.2627620697021,29.0835781097412,18.160135269165
35.0034446716309,30.2289047241211,18.1022453308105
36.9746322631836,30.3624706268311,18.1382369995117
17.428882598877,28.2648773193359,18.2553806304932
17.7004280090332,28.3198051452637,18.2138195037842
18.2483329772949,28.3635883331299,18.2108879089355
15.8806533813477,28.6590766906738,18.261173248291
16.0649108886719,28.6840591430664,18.2507133483887
17.0113277435303,28.9072971343994,18.2999935150146
16.2560157775879,27.9376640319824,18.3243465423584
14.7417726516724,28.5115718841553,18.3822555541992
14.8851728439331,28.5258598327637,18.3586540222168
14.9031686782837,28.5276870727539,18.3636646270752
15.1747407913208,28.5466728210449,18.3751354217529
15.3769493103027,28.5681533813477,18.342700958252
15.8401021957397,28.5272941589355,18.3573246002197
16.8801078796387,28.9095306396484,18.3286266326904
17.3092803955078,28.2291736602783,18.4024028778076
39.6468353271484,22.4997062683105,19.2825527191162
38.8871765136719,22.3328456878662,19.3456630706787
39.0083770751953,22.4423427581787,19.3106155395508
38.6497459411621,22.2968597412109,19.4397048950195
40.6780662536621,22.5695133209229,19.5318260192871
36.2119255065918,22.1471290588379,19.6046199798584
37.8522758483887,22.1410884857178,19.6371250152588
37.9533996582031,22.170747756958,19.6062602996826
37.7360420227051,22.2738628387451,19.7355804443359
37.9140434265137,22.2715682983398,19.7350463867188
36.488094329834,22.2590389251709,19.8044013977051
37.2687301635742,22.213134765625,19.8371315002441
34.6008529663086,22.381441116333,19.8987884521484
36.8293304443359,22.2620143890381,19.9879760742187
34.7613906860352,22.3394088745117,19.9036769866943
41.1125869750977,22.5159015655518,19.9105663299561
33.9754295349121,21.5385971069336,20.1341972351074
34.158317565918,21.5477695465088,20.1353282928467
35.09326171875,21.8238410949707,20.1952266693115
32.8952713012695,22.1947326660156,20.1027507781982
33.4976272583008,22.2216777801514,20.1486740112305
35.008602142334,22.326452255249,20.1511611938477
35.2180252075195,22.4588088989258,20.132755279541
30.1441688537598,21.4937896728516,20.2537460327148
28.5082092285156,21.5928955078125,20.2788257598877
33.9471054077148,21.5712623596191,20.2486171722412
33.5021324157715,21.6638584136963,20.2423152923584
30.7463150024414,21.4669456481934,20.3744239807129
30.8593235015869,21.4606742858887,20.368860244751
28.744665145874,21.5387783050537,20.3116130828857
33.3186874389648,21.6386852264404,20.3767147064209
27.7973289489746,21.5306034088135,20.4616222381592
27.8815402984619,21.5381317138672,20.4826850891113
27.9297161102295,21.5542068481445,20.4461078643799
31.1873931884766,21.5099620819092,20.4015293121338
31.402364730835,21.5301742553711,20.4616985321045
31.5859050750732,21.5888519287109,20.4505863189697
32.0921974182129,21.5748462677002,20.4316215515137
29.1313877105713,21.6583805084228,20.4851207733154
33.5238418579102,21.6588535308838,20.4371757507324
33.8811988830566,21.6595973968506,20.4244804382324
26.61989402771,21.5834484100342,20.5651264190674
27.1541404724121,21.3254814147949,20.6962623596191
27.006311416626,21.4814510345459,20.6585845947266
28.3521003723145,21.5395736694336,20.6713447570801
29.2105960845947,21.6559238433838,20.6976547241211
29.9944820404053,21.6307601928711,20.6024341583252
29.414041519165,21.7192459106445,20.6904067993164
25.7958984375,21.1830101013184,20.78196144104
26.0980052947998,21.1783580780029,20.7076358795166
26.2509765625,21.1432723999023,20.7244453430176
20.9774284362793,21.3848247528076,20.7690143585205
28.0404815673828,21.3426456451416,20.7310848236084
28.2175598144531,21.4295253753662,20.7126617431641
31.4542751312256,21.6646614074707,20.7924575805664
31.2520580291748,21.7344303131104,20.7751083374023
21.4695339202881,20.8858699798584,20.8942890167236
21.6581268310547,20.8708248138428,20.8909282684326
24.5308933258057,21.1863784790039,20.8911628723145
25.1502380371094,21.1820602416992,20.825813293457
25.3244819641113,21.1832256317139,20.825008392334
25.6924877166748,21.1510524749756,20.8287696838379
25.8639259338379,21.1537265777588,20.8374099731445
25.088903427124,21.2261085510254,20.8364734649658
22.3973045349121,20.9676723480225,20.9262943267822
24.0221843719482,21.128267288208,20.9922695159912
25.2958660125732,21.2674465179443,20.9994468688965
25.3379535675049,21.2681350708008,20.9562244415283
24.3068962097168,21.6362915039062,20.92116355896
24.4406719207764,21.6412010192871,20.9054393768311
32.002326965332,21.670539855957,20.9503345489502
18.2678852081299,20.5113697052002,21.0898876190186
19.2930679321289,21.2127151489258,21.0935592651367
25.1097145080566,21.2147464752197,21.0111179351807
20.1478691101074,20.8205318450928,21.1275215148926
21.5840682983398,20.8893699645996,21.1341724395752
21.8468761444092,20.8652610778809,21.108980178833
22.0278244018555,20.8960819244385,21.1004581451416
19.0829391479492,21.1495819091797,21.1044750213623
37.8187294006348,28.9447174072266,21.1726131439209
37.9983749389648,28.9672985076904,21.1671752929688
38.2203674316406,29.0511131286621,21.1791305541992
38.3373718261719,29.1513900756836,21.1760387420654
36.6284980773926,29.4546813964844,21.1345901489258
17.167013168335,20.3906364440918,21.2777538299561
17.2358722686768,20.3972454071045,21.294713973999
14.3764133453369,20.5005111694336,21.2311573028564
15.1123704910278,20.5591297149658,21.2867851257324
18.7858905792236,20.5593242645264,21.2094993591309
18.860746383667,20.5664043426514,21.2281036376953
15.9146938323975,20.7243499755859,21.2942905426025
21.3475189208984,20.920934677124,21.2907466888428
23.3712482452393,21.0012855529785,21.2748851776123
23.5765953063965,21.0799121856689,21.2616920471191
29.3948364257812,21.4528331756592,21.2613658905029
38.6900062561035,29.2124271392822,21.2082786560059
15.6698417663574,20.2026386260986,21.3220043182373
16.7710189819336,20.3662605285645,21.3686656951904
15.7868280410767,20.6890048980713,21.3850765228271
19.4192295074463,20.6204566955566,21.3775691986084
15.9743604660034,20.7136878967285,21.3739433288574
21.9351673126221,20.8895111083984,21.3101234436035
32.4613418579102,21.8800048828125,21.3124446868896
32.5942916870117,21.8797187805176,21.3090686798096
36.7863616943359,29.3788185119629,21.3500957489014
38.4522323608398,29.6456718444824,21.3159198760986
16.5080966949463,20.3190307617187,21.478967666626
16.6474189758301,20.3201923370361,21.4605197906494
14.4479646682739,20.5237216949463,21.4571723937988
14.6158466339111,20.5406723022461,21.4413661956787
14.982274055481,20.570707321167,21.481803894043
15.1700716018677,20.6050910949707,21.4674301147461
36.3405075073242,29.3650741577148,21.4667415618896
36.5678787231445,29.3269538879395,21.4669380187988
40.1105155944824,29.3365612030029,21.4641761779785
17.5052547454834,20.4318332672119,21.5147228240967
14.866961479187,20.5659828186035,21.5099506378174
34.6691360473633,28.7397708892822,21.5512180328369
35.4615898132324,28.8677272796631,21.5462245941162
35.6177787780762,28.8506870269775,21.532341003418
38.6063537597656,29.1029262542725,21.54518699646
34.2885322570801,29.2808856964111,21.5754241943359
34.1364898681641,29.3213062286377,21.584379196167
37.4938888549805,29.5081520080566,21.5055904388428
37.728687286377,29.5680866241455,21.5238494873047
17.4078826904297,20.399076461792,21.6186027526855
35.9868774414062,29.3874645233154,21.6501216888428
36.525146484375,29.4524040222168,21.6401748657227
36.7047271728516,29.4521045684814,21.6331195831299
16.3901882171631,20.6448173522949,21.7284202575684
34.1905860900879,28.8051567077637,21.7082557678223
35.5802803039551,28.85280418396,21.7522487640381
33.7066497802734,29.3361167907715,21.708158493042
33.9218063354492,29.337287902832,21.7116947174072
36.5499000549316,29.4127559661865,21.7513561248779
31.4710922241211,29.1226005554199,21.8962516784668
37.1058692932129,29.4903106689453,21.8923492431641
30.551607131958,28.5273323059082,22.0768375396729
32.3166618347168,28.6542205810547,22.0530757904053
32.4279823303223,28.6652793884277,22.0867881774902
33.307502746582,28.675121307373,22.0023193359375
33.4886741638184,28.6846256256104,22.0015754699707
32.9663238525391,28.7675552368164,22.0795764923096
34.8126602172852,28.9403171539307,22.0875759124756
32.7564353942871,29.1594047546387,22.0379505157471
34.6180114746094,29.4526100158691,22.0352115631103
30.1416645050049,28.4664764404297,22.183313369751
34.6429328918457,28.9765338897705,22.1003799438477
31.976879119873,29.1555366516113,22.1550788879395
32.524169921875,29.2244281768799,22.1933784484863
26.1315250396729,28.3135108947754,22.2919273376465
30.1208362579346,28.4648551940918,22.2712116241455
30.2362003326416,28.4601821899414,22.260534286499
29.7528896331787,28.505184173584,22.2330780029297
33.5370292663574,28.7609272003174,22.2735691070557
34.3171501159668,28.850076675415,22.2294216156006
34.5198440551758,28.9688663482666,22.2509212493896
26.2891254425049,28.2023143768311,22.3914356231689
26.4149265289307,28.299919128418,22.3897380828857
27.0639228820801,28.4076728820801,22.3906536102295
27.1999549865723,28.4297924041748,22.3817901611328
27.5919513702393,28.448938369751,22.3902225494385
29.2812900543213,28.4426898956299,22.3258571624756
27.7268047332764,28.5007266998291,22.3832912445068
28.8689365386963,28.5446090698242,22.3686752319336
29.0015411376953,28.544282913208,22.3643589019775
29.4001846313477,28.5947036743164,22.3591403961182
29.6084537506103,28.5330696105957,22.3480434417725
30.0569515228271,28.52614402771,22.3795719146729
30.2076835632324,28.5498161315918,22.3725032806396
33.4166603088379,28.8135681152344,22.3021488189697
27.6161403656006,28.4310836791992,22.4443893432617
27.7901000976563,28.5066509246826,22.4003276824951
29.0333805084229,28.5370292663574,22.4704246520996
31.4065780639648,28.6028671264648,22.4633693695068
31.5857200622559,28.656717300415,22.4692325592041
25.9902114868164,28.4153137207031,22.5605239868164
28.338508605957,28.5512638092041,22.5051040649414
28.5734806060791,28.5046253204346,22.514274597168
26.2309322357178,28.6905899047852,22.5694637298584
26.0665264129639,28.8281173706055,22.5948905944824
35.9204559326172,29.690616607666,22.5727367401123
22.9026355743408,27.9005031585693,22.6212749481201
27.1030006408691,28.2146987915039,22.6548137664795
22.8928871154785,28.392032623291,22.6342601776123
23.0805435180664,28.4413032531738,22.6397171020508
25.0549201965332,28.4869651794434,22.68678855896
25.1034545898437,28.4813137054443,22.6039028167725
24.9442386627197,28.5112400054932,22.6033325195313
19.3214836120605,27.4783897399902,22.7224597930908
21.0407199859619,27.599006652832,22.7909641265869
18.7055988311768,27.9722652435303,22.744421005249
18.8752002716064,27.9351329803467,22.727991104126
23.3275127410889,27.9558887481689,22.7867412567139
23.4291934967041,27.9510612487793,22.7608051300049
24.0072631835937,28.0080528259277,22.7695446014404
21.1814441680908,28.1996040344238,22.7990646362305
21.470287322998,28.1786079406738,22.7679042816162
21.2763595581055,28.2134189605713,22.7749423980713
26.5158767700195,28.4991054534912,22.7807464599609
25.2145595550537,28.514778137207,22.7793502807617
25.3860092163086,28.5179786682129,22.7860069274902
26.0952167510986,28.5099258422852,22.7061157226562
26.8837871551514,28.7019004821777,22.7058696746826
21.4234657287598,27.6539249420166,22.8424110412598
21.6230773925781,27.7258625030518,22.8503112792969
25.1538486480713,28.0669708251953,22.8920955657959
25.3381729125977,28.068244934082,22.8908767700195
22.5406036376953,28.2765522003174,22.8982372283936
23.1420650482178,28.40260887146,22.8453617095947
20.4726734161377,27.6180152893066,22.9658832550049
22.5128440856934,27.7365608215332,22.9321117401123
22.7660503387451,27.7864398956299,22.9555130004883
21.0769920349121,28.1946887969971,22.976526260376
21.2704334259033,28.1833610534668,22.9609851837158
23.434497833252,28.3696937561035,22.9834861755371
25.4728183746338,28.5939025878906,22.943904876709
19.6502552032471,28.0834293365479,23.0783920288086
25.4799404144287,28.1478500366211,23.0679817199707
21.3953990936279,28.2254676818848,23.0710029602051
23.29905128479,28.3639717102051,23.0010299682617
18.398193359375,27.8462696075439,23.1371631622314
18.425012588501,27.8489608764648,23.1451721191406
21.0069389343262,28.1644763946533,23.1282653808594
15.5785694122314,27.5302658081055,23.2692852020264
15.6509571075439,27.5665283203125,23.2347583770752
16.1428413391113,27.6033020019531,23.2789478302002
16.3699493408203,27.6246013641357,23.2168483734131
16.4694347381592,27.6344432830811,23.2439193725586
16.6050510406494,27.6479969024658,23.2819690704346
14.203161239624,27.7181282043457,23.2915534973145
18.3409309387207,27.8280639648437,23.2464981079102
18.7225780487061,27.8792114257813,23.2374820709229
19.6297931671143,28.0611972808838,23.2578792572021
19.7501106262207,28.0736846923828,23.29833984375
19.8041687011719,28.0647068023682,23.2468185424805
19.9440536499023,28.0670280456543,23.2385902404785
20.0794372558594,28.1302127838135,23.2893524169922
21.4978122711182,28.1899929046631,23.2223091125488
21.6810340881348,28.218921661377,23.2206993103027
14.4079780578613,27.2746505737305,23.3621788024902
14.8947801589966,27.377462387085,23.30224609375
15.3398761749268,27.5164432525635,23.3263378143311
15.482421875,27.5194702148437,23.3026390075684
19.1672306060791,27.9177131652832,23.3582344055176
19.37158203125,27.9751796722412,23.3644733428955
19.5915050506592,28.0567951202393,23.3463363647461
14.2859754562378,27.273983001709,23.4488162994385
14.4742937088013,27.3067932128906,23.4399852752686
14.9153738021851,27.3594284057617,23.432107925415
15.0980072021484,27.383430480957,23.4211006164551
15.6377286911011,27.5173683166504,23.4619617462158
14.1075496673584,27.2502956390381,23.5898513793945
15.3667869567871,27.3637866973877,23.5106754302979
13.6256990432739,27.7141513824463,23.5204982757568
13.9416933059692,27.2329254150391,23.6074523925781
36.3693504333496,26.6188659667969,28.0617122650146
36.5010261535645,26.6855545043945,28.0505981445312
36.8088226318359,26.7327156066895,28.065502166748
37.4494323730469,26.7707443237305,28.0621719360352
34.7925033569336,26.4157028198242,28.1446723937988
35.1799659729004,26.4894618988037,28.1879615783691
35.3987121582031,26.5333652496338,28.1933727264404
36.2460746765137,26.5621032714844,28.1371994018555
36.4284820556641,26.5842742919922,28.1322460174561
36.54833984375,26.6349792480469,28.1082458496094
34.3435249328613,26.4381141662598,28.2994403839111
34.942440032959,26.4285354614258,28.2472019195557
36.2346954345703,26.6078338623047,28.2482452392578
34.1410026550293,26.4121532440186,28.3586807250977
34.3037567138672,26.431827545166,28.3909091949463
36.6841049194336,26.6377983093262,28.3326930999756
33.7731475830078,26.4445457458496,28.4575080871582
33.9416427612305,26.4407825469971,28.4512557983398
34.010799407959,26.408863067627,28.4168548583984
31.9056529998779,26.0333881378174,28.5311374664307
32.1071510314941,26.0400581359863,28.5337085723877
32.216609954834,26.3668079376221,28.5382919311523
33.4120140075684,26.4105968475342,28.523868560791
31.7473316192627,26.0816211700439,28.6274909973145
31.9211406707764,26.0658664703369,28.6255321502686
32.1294898986816,26.0707321166992,28.6310634613037
30.3261451721191,26.2707004547119,28.6512889862061
30.4705009460449,26.2440586090088,28.644660949707
33.2611427307129,26.3908863067627,28.6033802032471
33.4628105163574,26.3998985290527,28.6065731048584
33.1127128601074,26.410213470459,28.604154586792
32.1069259643555,26.1162185668945,28.7294807434082
31.0764598846436,26.2567234039307,28.7544250488281
31.1245212554932,26.2614078521729,28.767858505249
31.2594776153564,26.2674770355225,28.7547302246094
30.7830123901367,25.9951934814453,28.8413181304932
30.3024616241455,26.2510013580322,28.8632469177246
31.6089363098145,26.3471488952637,28.8004779815674
31.8057117462158,26.4231548309326,28.8030738830566
27.8997058868408,25.7913341522217,28.9738426208496
28.0820446014404,25.8271770477295,28.9736251831055
28.7737445831299,25.860725402832,28.975679397583
30.2509288787842,25.9485988616943,28.9945602416992
30.4164047241211,25.9522037506103,28.91432762146
30.4739627838135,26.2676753997803,28.9123458862305
30.5253314971924,26.2727546691895,28.9277114868164
27.2316226959229,25.7800884246826,29.0263767242432
27.723653793335,25.8238906860352,29.0573406219482
27.8686771392822,25.8373985290527,29.096040725708
28.0368061065674,25.8061637878418,29.0871887207031
28.1656970977783,25.807258605957,29.0828819274902
26.3848285675049,25.849739074707,29.1983528137207
26.6908531188965,25.8193588256836,29.1865673065186
26.8424491882324,25.8402404785156,29.1593456268311
27.0173625946045,25.8266639709473,29.1601142883301
27.7051105499268,25.8195819854736,29.1009902954102
28.4853496551514,25.8440990447998,29.1199073791504
25.284646987915,25.7593231201172,29.2730731964111
26.595739364624,25.8268966674805,29.210018157959
25.1836280822754,25.3914051055908,29.3741855621338
25.3377151489258,25.4522552490234,29.3620071411133
24.4538898468018,25.5888004302979,29.3718643188477
25.8521118164062,25.505313873291,29.3066291809082
26.0438232421875,25.5426254272461,29.3063888549805
26.4780311584473,25.5689601898193,29.3011207580566
24.6940517425537,25.6199588775635,29.3887691497803
25.7012710571289,25.7979335784912,29.3886413574219
25.8572864532471,25.8150081634521,29.3817577362061
26.0327930450439,25.80735206604,29.3829402923584
23.9582023620605,25.4993686676025,29.4744853973389
23.7272758483887,25.5522327423096,29.4949550628662
24.691650390625,25.6407833099365,29.4796352386475
24.5236072540283,25.7150268554687,29.4759674072266
21.717945098877,25.1685047149658,29.5508251190186
21.9005908966064,25.2004699707031,29.5473327636719
22.0214786529541,25.4931163787842,29.5024337768555
22.950174331665,25.4882564544678,29.5060195922852
23.1087970733643,25.4935550689697,29.5092887878418
24.2852573394775,25.4981727600098,29.5225791931152
24.5370616912842,25.4995193481445,29.5500717163086
22.8495845794678,25.5122909545898,29.5370674133301
23.6409320831299,25.5291786193848,29.5365219116211
23.8777313232422,25.5379791259766,29.5006828308105
21.6695022583008,25.1922969818115,29.6396732330322
21.804386138916,25.1945209503174,29.6245212554932
22.6704597473145,25.2571086883545,29.6611747741699
21.8396625518799,25.4835166931152,29.6063995361328
22.766881942749,25.5236587524414,29.6190948486328
22.9462242126465,25.528959274292,29.6176280975342
19.3083629608154,24.9738826751709,29.7515411376953
19.9987697601318,25.2838459014893,29.7538604736328
20.1886615753174,25.3299884796143,29.7508449554443
20.4152145385742,25.3530921936035,29.7597389221191
20.600902557373,25.3395881652832,29.7603702545166
21.0886192321777,25.37961769104,29.737771987915
20.9894790649414,25.0799865722656,29.8549365997314
21.2090492248535,25.1135597229004,29.8645648956299
22.0072231292725,25.1992378234863,29.8139591217041
19.7982921600342,25.3029327392578,29.8693618774414
19.9992294311523,25.3039531707764,29.8603668212891
20.4078826904297,25.3513813018799,29.81809425354
14.5840263366699,24.7484493255615,29.9794235229492
17.9381656646729,24.8759689331055,29.9900856018066
16.5523281097412,24.9522228240967,29.99440574646
16.7779483795166,24.9928970336914,29.9822845458984
19.447151184082,24.9620933532715,29.9125461578369
19.6262454986572,24.9854564666748,29.9069805145264
17.4485626220703,25.086275100708,29.9386482238769
17.5879364013672,25.0937004089355,29.9325103759766
20.208703994751,25.0151023864746,29.9113426208496
17.9803867340088,25.1675662994385,29.9252433776855
21.55393409729,25.1448593139648,29.9177513122559
21.7093925476074,25.1541976928711,29.9069061279297
13.2552690505981,24.589958190918,30.0571174621582
14.1888742446899,24.7103080749512,30.0213851928711
14.2348699569702,24.7175712585449,30.0894470214844
14.4339141845703,24.729305267334,30.0290985107422
14.71848487854,24.7613773345947,30.0127296447754
17.2063236236572,24.7823657989502,30.0772876739502
17.2025318145752,24.8001956939697,30.0128173828125
17.3687705993652,24.80832862854,30.003267288208
16.7202625274658,24.9704418182373,30.0520515441895
18.5203971862793,24.9199295043945,30.0588283538818
18.6916847229004,24.9069232940674,30.0524635314941
19.1656723022461,24.9615783691406,30.0477409362793
17.0189971923828,24.7237854003906,30.1798191070557
17.7557621002197,24.8475952148438,30.1251602172852
16.9060287475586,24.9895362854004,30.1115112304687
17.0918579101563,25.0091609954834,30.1755523681641
19.8159294128418,25.0159320831299,30.1175785064697
12.6856889724731,24.4242572784424,30.2127895355225
12.8960285186768,24.4703826904297,30.2060623168945
13.3496265411377,24.5492172241211,30.2721214294434
13.5307569503784,24.5717468261719,30.2601661682129
15.3746204376221,24.550573348999,30.2379093170166
14.1119985580444,24.6944179534912,30.247106552124
14.2703342437744,24.7048435211182,30.2292022705078
12.4508781433105,24.4332370758057,30.3372955322266
12.6338558197021,24.4603729248047,30.3246994018555
12.7937564849854,24.4638347625732,30.3209991455078
14.6171712875366,24.4643440246582,30.304988861084
13.8825302124023,24.6182804107666,30.3036670684814
12.4689054489136,24.4386920928955,30.4900245666504
12.641227722168,24.457498550415,30.47438621521
12.8136711120605,24.4770050048828,30.5389060974121
